500
621768.32 6607000.28 129.14
621767.84 6607000.29 129.17
621767.34 6607000.31 129.12
621766.86 6607000.32 129.13
621766.37 6607000.33 129.13
621765.87 6607000.35 129.08
621765.39 6607000.36 129.09
621764.90 6607000.37 129.10
621764.40 6607000.39 129.08
621763.90 6607000.40 129.07
621763.41 6607000.41 129.06
621762.93 6607000.43 129.08
621762.44 6607000.44 129.07
621761.97 6607000.45 129.06
621761.49 6607000.47 129.05
621759.56 6607000.52 128.99
621759.08 6607000.53 128.96
621758.60 6607000.55 128.94
621758.11 6607000.56 128.92
621757.63 6607000.57 128.91
621757.15 6607000.59 128.89
621756.68 6607000.60 128.89
621756.19 6607000.62 128.83
621755.72 6607000.63 128.82
621755.25 6607000.64 128.81
621754.79 6607000.66 128.82
621754.32 6607000.67 128.80
621753.85 6607000.68 128.79
621753.37 6607000.69 128.78
621752.90 6607000.71 128.76
621752.44 6607000.72 128.77
621751.99 6607000.73 128.75
621751.53 6607000.75 128.74
621751.06 6607000.76 128.72
621750.60 6607000.77 128.73
621750.14 6607000.78 128.72
621749.69 6607000.80 128.72
621749.23 6607000.81 128.71
621748.78 6607000.82 128.70
621748.33 6607000.83 128.69
621747.87 6607000.85 128.67
621747.41 6607000.86 128.67
621746.95 6607000.87 128.65
621746.50 6607000.89 128.62
621746.06 6607000.90 128.63
621745.62 6607000.91 128.64
621745.15 6607000.93 128.57
621744.71 6607000.94 128.61
621744.29 6607000.95 128.64
621743.87 6607000.95 128.72
621745.94 6607000.47 136.43
621743.46 6607000.96 128.82
621743.05 6607000.96 128.93
621745.40 6607000.43 137.40
621744.90 6607000.45 137.21
621744.49 6607000.46 137.26
621744.22 6607000.37 139.09
621743.91 6607000.36 139.46
621743.45 6607000.38 139.34
621743.52 6607000.29 140.85
621743.23 6607000.28 141.25
621742.89 6607000.27 141.51
621742.56 6607000.27 141.78
621742.05 6607000.30 141.51
621740.54 6607000.38 140.78
621740.25 6607000.36 141.17
621738.83 6607000.43 140.62
621738.51 6607000.43 140.86
621737.99 6607000.46 140.53
621735.51 6607000.60 139.20
621735.19 6607000.60 139.44
621734.88 6607000.59 139.69
621735.14 6607000.48 141.67
621734.32 6607000.57 140.43
621733.90 6607000.58 140.36
621733.45 6607000.61 140.17
621733.93 6607000.78 140.26
621734.84 6607000.80 139.55
621737.03 6607000.70 140.33
621738.40 6607000.63 140.91
621738.73 6607000.63 140.72
621740.03 6607000.58 141.04
621740.62 6607000.60 140.39
621742.17 6607000.51 141.46
621743.05 6607000.47 141.65
621743.30 6607000.49 141.17
621744.19 6607000.53 140.15
621744.30 6607000.57 139.27
621744.70 6607000.64 137.98
621745.42 6607000.64 137.63
621743.02 6607001.18 129.05
621743.40 6607001.18 128.94
621743.79 6607001.17 128.84
621744.18 6607001.17 128.74
621744.57 6607001.16 128.68
621744.99 6607001.15 128.65
621745.39 6607001.15 128.61
621745.81 6607001.14 128.59
621746.25 6607001.12 128.64
621746.69 6607001.11 128.65
621747.11 6607001.10 128.64
621747.53 6607001.09 128.65
621747.97 6607001.08 128.69
621748.41 6607001.07 128.71
621748.86 6607001.05 128.72
621749.29 6607001.04 128.70
621749.73 6607001.03 128.69
621750.17 6607001.02 128.70
621750.62 6607001.01 128.73
621751.06 6607001.00 128.74
621751.50 6607000.99 128.74
621751.94 6607000.98 128.74
621752.40 6607000.96 128.76
621752.85 6607000.95 128.75
621753.30 6607000.94 128.75
621753.75 6607000.93 128.76
621754.20 6607000.92 128.75
621754.66 6607000.91 128.80
621755.10 6607000.90 128.79
621755.56 6607000.88 128.81
621756.02 6607000.87 128.83
621756.47 6607000.86 128.82
621756.93 6607000.85 128.85
621757.39 6607000.83 128.88
621757.85 6607000.82 128.88
621758.32 6607000.81 128.92
621758.77 6607000.80 128.89
621762.48 6607000.70 129.04
621762.93 6607000.69 129.03
621763.40 6607000.68 129.05
621763.85 6607000.67 129.05
621764.32 6607000.66 129.07
621764.79 6607000.64 129.08
621765.26 6607000.63 129.09
621765.72 6607000.62 129.10
621766.19 6607000.61 129.09
621766.66 6607000.60 129.11
621767.13 6607000.59 129.12
621767.61 6607000.57 129.12
621768.07 6607000.56 129.11
621821.73 6607000.69 132.31
621821.19 6607000.71 132.28
621820.65 6607000.72 132.26
621820.12 6607000.73 132.27
621819.57 6607000.75 132.22
621819.03 6607000.76 132.21
621817.41 6607000.81 132.16
621815.24 6607000.86 132.09
621814.70 6607000.87 132.09
621814.16 6607000.89 132.08
621813.62 6607000.90 132.09
621813.08 6607000.91 132.06
621812.53 6607000.93 132.03
621812.00 6607000.94 132.00
621811.47 6607000.96 131.99
621810.94 6607000.97 131.96
621810.41 6607000.98 131.96
621809.87 6607001.00 131.93
621809.33 6607001.01 131.89
621808.78 6607001.03 131.87
621808.24 6607001.04 131.84
621807.71 6607001.06 131.86
621807.16 6607001.07 131.80
621806.62 6607001.09 131.79
621806.08 6607001.10 131.72
621805.54 6607001.12 131.71
621804.46 6607001.15 131.62
621803.92 6607001.16 131.57
621803.38 6607001.18 131.53
621801.77 6607001.23 131.37
621796.98 6607001.36 131.21
621785.52 6607001.74 129.40
621785.00 6607001.76 129.37
621769.81 6607002.15 129.18
621768.82 6607002.18 129.16
621768.34 6607002.19 129.18
621767.83 6607002.21 129.16
621767.33 6607002.22 129.14
621766.84 6607002.23 129.15
621766.34 6607002.24 129.15
621765.85 6607002.26 129.13
621765.36 6607002.27 129.15
621764.87 6607002.28 129.13
621759.04 6607002.45 128.94
621758.56 6607002.46 128.93
621758.08 6607002.47 128.92
621757.60 6607002.49 128.90
621757.12 6607002.50 128.89
621756.64 6607002.51 128.88
621756.17 6607002.53 128.85
621755.69 6607002.54 128.84
621755.21 6607002.55 128.83
621754.74 6607002.57 128.82
621754.27 6607002.58 128.81
621753.81 6607002.59 128.82
621753.35 6607002.60 128.81
621752.88 6607002.62 128.79
621752.42 6607002.63 128.78
621751.95 6607002.64 128.77
621751.48 6607002.66 128.75
621751.03 6607002.67 128.74
621750.58 6607002.68 128.74
621750.13 6607002.69 128.74
621749.68 6607002.70 128.74
621749.22 6607002.72 128.73
621748.76 6607002.73 128.73
621748.31 6607002.74 128.75
621747.85 6607002.75 128.73
621747.39 6607002.77 128.73
621746.97 6607002.77 128.82
621746.54 6607002.78 128.87
621744.91 6607002.21 139.97
621744.89 6607002.14 141.25
621744.37 6607002.17 141.00
621743.98 6607002.17 141.12
621743.56 6607002.18 141.13
621743.22 6607002.18 141.35
621743.19 6607002.11 142.56
621742.71 6607002.13 142.39
621741.63 6607002.13 142.92
621741.10 6607002.17 142.58
621740.73 6607002.17 142.72
621739.67 6607002.24 142.05
621738.60 6607002.30 141.36
621738.15 6607002.32 141.26
621736.62 6607002.48 139.12
621736.24 6607002.49 139.20
621735.80 6607002.44 140.27
621735.84 6607002.67 139.24
621736.23 6607002.66 139.23
621736.52 6607002.67 138.94
621738.07 6607002.50 141.23
621738.49 6607002.49 141.29
621738.41 6607002.57 139.89
621740.56 6607002.35 142.82
621740.90 6607002.35 142.61
621741.34 6607002.33 142.74
621741.74 6607002.33 142.71
621742.17 6607002.31 142.78
621742.35 6607002.34 142.10
621742.83 6607002.32 142.36
621743.40 6607002.28 142.85
621743.35 6607002.36 141.46
621743.65 6607002.37 141.15
621744.10 6607002.35 141.26
621741.72 6607002.81 134.04
621744.47 6607002.34 141.14
621744.89 6607002.33 141.16
621744.93 6607002.40 140.04
621745.36 6607002.38 140.08
621748.35 6607002.44 137.66
621748.61 6607002.47 137.16
621747.18 6607002.97 128.84
621747.59 6607002.96 128.76
621748.02 6607002.95 128.77
621748.44 6607002.94 128.76
621748.87 6607002.93 128.74
621749.30 6607002.92 128.75
621749.74 6607002.91 128.76
621750.18 6607002.90 128.75
621750.61 6607002.89 128.73
621751.05 6607002.88 128.74
621751.49 6607002.87 128.72
621751.94 6607002.86 128.74
621752.38 6607002.84 128.75
621752.83 6607002.83 128.78
621753.28 6607002.82 128.78
621753.72 6607002.81 128.80
621754.17 6607002.80 128.81
621754.62 6607002.79 128.80
621755.07 6607002.77 128.82
621755.52 6607002.76 128.81
621755.98 6607002.75 128.84
621756.44 6607002.74 128.85
621756.90 6607002.73 128.86
621757.36 6607002.71 128.87
621757.83 6607002.70 128.89
621758.30 6607002.69 128.91
621758.76 6607002.68 128.93
621759.21 6607002.67 128.91
621765.28 6607002.51 129.12
621766.20 6607002.49 129.11
621766.68 6607002.47 129.16
621767.14 6607002.46 129.15
621767.61 6607002.45 129.15
621768.07 6607002.44 129.15
621768.55 6607002.43 129.18
621769.01 6607002.42 129.11
621770.44 6607002.38 129.15
621813.74 6607001.21 132.03
621859.21 6607000.10 134.18
621940.54 6607000.04 133.02
621940.00 6607000.06 133.01
621939.46 6607000.07 133.01
621938.93 6607000.08 132.99
621938.40 6607000.09 133.00
621936.80 6607000.12 132.99
621935.73 6607000.14 132.97
621935.20 6607000.15 133.00
621934.65 6607000.16 132.94
621934.12 6607000.17 132.96
621933.59 6607000.18 133.03
621933.06 6607000.18 133.08
621932.53 6607000.19 133.13
621932.00 6607000.20 133.16
621931.47 6607000.21 133.21
621930.94 6607000.21 133.27
621930.41 6607000.22 133.30
621929.87 6607000.23 133.34
621929.34 6607000.24 133.39
621928.84 6607000.24 133.54
621928.30 6607000.25 133.54
621926.69 6607000.28 133.54
621926.16 6607000.29 133.57
621925.63 6607000.30 133.55
621925.09 6607000.31 133.53
621924.55 6607000.32 133.53
621924.01 6607000.33 133.54
621923.48 6607000.34 133.57
621922.94 6607000.35 133.57
621922.41 6607000.36 133.61
621921.87 6607000.37 133.62
621921.34 6607000.38 133.61
621920.80 6607000.39 133.62
621920.26 6607000.41 133.59
621919.73 6607000.42 133.60
621919.20 6607000.43 133.59
621918.14 6607000.44 133.68
621917.60 6607000.46 133.65
621917.06 6607000.47 133.64
621916.52 6607000.48 133.67
621915.98 6607000.49 133.68
621915.61 6607000.44 134.51
621915.08 6607000.45 134.54
621912.15 6607000.58 133.44
621906.21 6607000.70 133.38
621904.06 6607000.74 133.39
621890.04 6607001.03 133.54
621889.50 6607001.04 133.56
621876.43 6607001.33 133.32
621871.57 6607001.43 133.46
621871.05 6607001.43 133.62
621870.66 6607001.40 134.26
621870.17 6607001.40 134.46
621869.65 6607001.40 134.58
621869.12 6607001.42 134.58
621861.21 6607001.67 133.23
621859.24 6607001.66 134.09
621840.11 6607001.53 144.02
621838.88 6607001.48 145.52
621838.26 6607001.51 145.22
621838.12 6607001.42 146.76
621813.25 6607002.85 132.04
621802.96 6607003.13 131.37
621801.34 6607003.18 131.21
621784.64 6607003.70 129.37
621783.61 6607003.73 129.36
621771.97 6607004.03 129.25
621771.48 6607004.04 129.27
621770.46 6607004.07 129.23
621769.95 6607004.08 129.23
621769.46 6607004.10 129.25
621768.96 6607004.11 129.22
621768.47 6607004.12 129.23
621762.09 6607004.30 129.09
621761.60 6607004.31 129.07
621761.10 6607004.33 129.01
621760.62 6607004.34 129.02
621760.13 6607004.35 129.00
621759.65 6607004.37 128.98
621759.17 6607004.38 128.95
621758.68 6607004.39 128.94
621758.20 6607004.41 128.92
621757.73 6607004.42 128.90
621757.26 6607004.43 128.89
621756.78 6607004.45 128.86
621756.31 6607004.46 128.85
621755.83 6607004.48 128.83
621755.36 6607004.49 128.82
621754.88 6607004.50 128.81
621754.42 6607004.51 128.79
621753.95 6607004.53 128.80
621755.97 6607004.04 136.54
621753.50 6607004.54 128.79
621755.55 6607004.05 136.63
621753.04 6607004.55 128.77
621755.27 6607004.02 137.18
621755.14 6607003.97 138.22
621754.86 6607003.95 138.78
621754.25 6607003.99 138.31
621753.84 6607003.99 138.47
621750.78 6607004.14 137.33
621750.38 6607004.14 137.47
621748.99 6607004.11 138.74
621746.70 6607004.11 139.76
621746.37 6607004.10 140.10
621744.29 6607004.29 137.74
621744.64 6607004.15 140.12
621744.30 6607004.14 140.38
621744.03 6607004.12 140.85
621743.60 6607004.13 140.87
621743.14 6607004.15 140.77
621742.80 6607004.15 141.02
621742.12 6607004.21 140.26
621742.19 6607004.12 141.75
621740.92 6607004.23 140.48
621740.36 6607004.20 141.31
621740.09 6607004.18 141.75
621737.74 6607004.43 138.42
621734.00 6607004.88 132.17
621733.95 6607005.07 132.04
621738.11 6607004.60 138.55
621739.07 6607004.55 139.05
621740.07 6607004.42 140.88
621742.02 6607004.31 141.95
621742.37 6607004.31 141.77
621742.61 6607004.34 141.25
621743.73 6607004.33 140.89
621744.15 6607004.32 140.95
621744.32 6607004.35 140.24
621744.68 6607004.35 140.10
621746.68 6607004.32 139.83
621750.26 6607004.34 137.89
621750.55 6607004.35 137.47
621750.92 6607004.36 137.25
621752.59 6607004.25 138.39
621752.97 6607004.25 138.23
621753.43 6607004.23 138.30
621753.97 6607004.20 138.63
621754.93 6607004.16 138.91
621755.31 6607004.16 138.74
621755.56 6607004.27 136.72
621755.96 6607004.27 136.59
621753.46 6607004.77 128.80
621753.91 6607004.76 128.78
621754.36 6607004.75 128.77
621754.81 6607004.74 128.77
621755.26 6607004.73 128.77
621755.72 6607004.71 128.79
621756.18 6607004.70 128.82
621756.63 6607004.69 128.83
621757.08 6607004.68 128.85
621757.55 6607004.66 128.88
621758.01 6607004.65 128.88
621758.46 6607004.64 128.87
621758.93 6607004.63 128.90
621759.39 6607004.61 128.95
621759.84 6607004.60 128.95
621760.30 6607004.59 128.98
621760.76 6607004.58 129.00
621761.22 6607004.57 129.01
621761.69 6607004.55 129.01
621762.16 6607004.54 129.04
621769.70 6607004.35 129.21
621770.18 6607004.34 129.20
621772.10 6607004.29 129.22
621804.04 6607003.41 131.58
621838.12 6607001.70 148.21
621839.18 6607001.79 146.27
621857.86 6607002.08 134.31
621859.37 6607002.06 134.00
621861.32 6607002.07 133.13
621868.11 6607001.85 134.62
621868.65 6607001.83 134.62
621869.17 6607001.83 134.57
621869.69 6607001.82 134.56
621870.54 6607001.85 133.61
621888.83 6607001.49 133.55
621889.37 6607001.48 133.55
621889.91 6607001.47 133.55
621890.43 6607001.46 133.52
621914.96 6607000.93 134.63
621915.48 6607000.93 134.54
621915.87 6607000.97 133.80
621916.38 6607000.96 133.65
621919.59 6607000.91 133.58
621920.12 6607000.90 133.56
621920.67 6607000.89 133.59
621921.21 6607000.88 133.61
621921.74 6607000.87 133.59
621922.28 6607000.86 133.60
621922.82 6607000.85 133.57
621923.36 6607000.84 133.56
621923.91 6607000.83 133.55
621924.44 6607000.82 133.52
621924.98 6607000.82 133.51
621925.51 6607000.80 133.52
621926.05 6607000.79 133.55
621928.77 6607000.74 133.63
621929.28 6607000.74 133.48
621929.79 6607000.74 133.33
621930.32 6607000.73 133.31
621930.85 6607000.72 133.29
621931.38 6607000.72 133.22
621931.91 6607000.71 133.17
621932.45 6607000.70 133.13
621932.98 6607000.70 133.06
621933.51 6607000.69 132.99
621934.03 6607000.69 132.93
621936.74 6607000.64 132.98